ply
format ascii 1.0
element vertex 593
property float x
property float y
property float z
property uchar red
property uchar green
property uchar blue
end_header
762130.081188 848396.682692 1200.000000 255 255 255 
762234.860137 848444.890605 1200.000000 255 255 255 
762303.137526 848517.120601 1200.000000 255 255 255 
762345.923900 848569.139096 1200.000000 255 255 255 
762404.885536 848585.235472 1200.000000 255 255 255 
762481.990062 848592.917013 1200.000000 255 255 255 
762514.656048 848599.090609 1200.000000 255 255 255 
762543.158204 848611.864326 1200.000000 255 255 255 
762554.478578 848631.481319 1200.000000 255 255 255 
762561.340391 848653.596693 1200.000000 255 255 255 
762557.205308 848712.236252 1200.000000 255 255 255 
762543.570698 848766.407578 1200.000000 255 255 255 
762525.356823 848844.838362 1200.000000 255 255 255 
762512.936108 848909.108683 1200.000000 255 255 255 
762485.277051 848973.294356 1200.000000 255 255 255 
762446.629998 849072.426939 1200.000000 255 255 255 
762406.359657 849181.461740 1200.000000 255 255 255 
762356.809661 849277.770672 1200.000000 255 255 255 
762359.019241 849337.285619 1200.000000 255 255 255 
762365.129806 849386.999465 1200.000000 255 255 255 
762364.577318 849486.560503 1200.000000 255 255 255 
762367.022961 849573.132373 1200.000000 255 255 255 
762323.530999 849744.459299 1200.000000 255 255 255 
762324.798552 849859.265367 1200.000000 255 255 255 
762316.535251 849975.279771 1200.000000 255 255 255 
762299.614211 850049.615635 1200.000000 255 255 255 
762257.338613 850116.241497 1200.000000 255 255 255 
762225.779622 850196.803441 1200.000000 255 255 255 
762216.267556 850309.025477 1200.000000 255 255 255 
762200.753033 850358.769101 1200.000000 255 255 255 
762187.251815 850388.970425 1200.000000 255 255 255 
762152.118135 850427.251452 1200.000000 255 255 255 
762095.439593 850457.843819 1200.000000 255 255 255 
762021.639597 850484.556681 1200.000000 255 255 255 
761987.333518 850488.150853 1200.000000 255 255 255 
761946.734348 850481.618085 1200.000000 255 255 255 
761909.372690 850463.749750 1200.000000 255 255 255 
763030.217887 849056.737088 1000.000000 255 255 255 
763043.047633 849188.859077 1000.000000 255 255 255 
763062.406663 849275.959383 1000.000000 255 255 255 
763071.617554 849322.531873 1000.000000 255 255 255 
763070.770359 849341.660615 1000.000000 255 255 255 
763068.608011 849362.283391 1000.000000 255 255 255 
763055.046092 849409.906835 1000.000000 255 255 255 
763046.653418 849434.775634 1000.000000 255 255 255 
763045.542477 849482.287572 1000.000000 255 255 255 
763049.089987 849529.404869 1000.000000 255 255 255 
763057.459547 849564.669209 1000.000000 255 255 255 
763092.603688 849620.898428 1000.000000 255 255 255 
763137.099997 849661.357901 1000.000000 255 255 255 
763157.835703 849688.964123 1000.000000 255 255 255 
763170.188480 849718.694955 1000.000000 255 255 255 
763182.642605 849795.071328 1000.000000 255 255 255 
763183.681660 849873.774869 1000.000000 255 255 255 
763186.388519 849996.516907 1000.000000 255 255 255 
763179.104579 850050.301583 1000.000000 255 255 255 
763159.841504 850088.881137 1000.000000 255 255 255 
763124.490848 850125.918149 1000.000000 255 255 255 
763098.505563 850152.580990 1000.000000 255 255 255 
763074.321716 850179.215289 1000.000000 255 255 255 
763056.284528 850214.036379 1000.000000 255 255 255 
763020.792761 850316.442493 1000.000000 255 255 255 
763005.415468 850341.377003 1000.000000 255 255 255 
762984.578913 850358.501734 1000.000000 255 255 255 
762943.580566 850385.606348 1000.000000 255 255 255 
762855.086124 850444.676916 1000.000000 255 255 255 
762785.055854 850489.091567 1000.000000 255 255 255 
762751.409529 850499.334609 1000.000000 255 255 255 
762714.847814 850498.657120 1000.000000 255 255 255 
762680.918072 850493.119492 1000.000000 255 255 255 
762653.256644 850490.378463 1000.000000 255 255 255 
762613.503393 850499.570855 1000.000000 255 255 255 
762550.567099 850536.062790 1000.000000 255 255 255 
762511.908933 850561.078046 1000.000000 255 255 255 
762478.615768 850593.400471 1000.000000 255 255 255 
762461.679856 850611.679648 1000.000000 255 255 255 
762450.165810 850636.571807 1000.000000 255 255 255 
762447.847619 850663.324539 1000.000000 255 255 255 
762450.155493 850690.912279 1000.000000 255 255 255 
762458.497364 850727.300021 1000.000000 255 255 255 
762475.657449 850762.297050 1000.000000 255 255 255 
763509.123214 848846.995404 900.000000 255 255 255 
763528.964282 848883.613471 900.000000 255 255 255 
763518.683283 848930.020327 900.000000 255 255 255 
763464.547720 849052.516586 900.000000 255 255 255 
763424.089430 849118.668282 900.000000 255 255 255 
763443.394251 849251.529603 900.000000 255 255 255 
763482.650557 849401.095931 900.000000 255 255 255 
763495.365972 849517.325743 900.000000 255 255 255 
763477.848634 849663.256092 900.000000 255 255 255 
763470.242250 849829.154033 900.000000 255 255 255 
763426.184597 849941.747494 900.000000 255 255 255 
763388.850506 850048.505584 900.000000 255 255 255 
763368.338975 850130.595756 900.000000 255 255 255 
763417.985945 850213.841971 900.000000 255 255 255 
763414.219634 850290.152691 900.000000 255 255 255 
763367.006666 850369.539745 900.000000 255 255 255 
763346.537279 850445.757041 900.000000 255 255 255 
763342.845018 850508.792766 900.000000 255 255 255 
763295.780346 850561.630283 900.000000 255 255 255 
763208.721032 850597.651065 900.000000 255 255 255 
763091.818408 850593.680766 900.000000 255 255 255 
763018.103324 850633.094904 900.000000 255 255 255 
762931.026014 850672.434665 900.000000 255 255 255 
762894.131650 850698.779032 900.000000 255 255 255 
762877.299339 850721.916388 900.000000 255 255 255 
762877.133016 850751.783987 900.000000 255 255 255 
762983.772978 850798.840108 900.000000 255 255 255 
763682.860023 848844.644476 800.000000 255 255 255 
763691.938816 849013.957352 800.000000 255 255 255 
763694.539465 849146.726162 800.000000 255 255 255 
763730.639613 849263.087200 800.000000 255 255 255 
763686.655192 849362.407170 800.000000 255 255 255 
763659.022715 849524.875846 800.000000 255 255 255 
763627.975538 849700.600138 800.000000 255 255 255 
763637.294086 849826.766870 800.000000 255 255 255 
763666.786069 849929.814271 800.000000 255 255 255 
763646.297672 850009.351038 800.000000 255 255 255 
763645.964324 850069.087407 800.000000 255 255 255 
763629.279586 850065.675512 800.000000 255 255 255 
763648.767861 850165.347822 800.000000 255 255 255 
763711.795464 850245.350365 800.000000 255 255 255 
763697.839988 850351.473213 800.000000 255 255 255 
763683.940095 850447.639832 800.000000 255 255 255 
763633.330457 850536.963755 800.000000 255 255 255 
763569.321480 850632.850195 800.000000 255 255 255 
763498.816759 850695.512782 800.000000 255 255 255 
763478.587916 850728.587280 800.000000 255 255 255 
763494.846335 850808.327707 800.000000 255 255 255 
763468.288279 850778.310853 800.000000 255 255 255 
762657.469585 848951.542169 1100.000000 255 255 255 
762623.017221 849209.968500 1100.000000 255 255 255 
762597.663735 849343.071514 1100.000000 255 255 255 
762587.698573 849381.421124 1100.000000 255 255 255 
762588.719710 849426.211483 1100.000000 255 255 255 
762608.442370 849519.959886 1100.000000 255 255 255 
762637.680392 849642.206365 1100.000000 255 255 255 
762640.088046 849723.115568 1100.000000 255 255 255 
762647.748532 849772.830959 1100.000000 255 255 255 
762660.247137 849808.854053 1100.000000 255 255 255 
762671.438050 849894.401701 1100.000000 255 255 255 
762664.061532 849979.339263 1100.000000 255 255 255 
762630.280411 850059.731372 1100.000000 255 255 255 
762587.348462 850187.221797 1100.000000 255 255 255 
762532.171509 850241.175906 1100.000000 255 255 255 
762450.097445 850315.393009 1100.000000 255 255 255 
762353.736273 850441.301615 1100.000000 255 255 255 
762314.594194 850477.247472 1100.000000 255 255 255 
762255.944247 850519.813009 1100.000000 255 255 255 
762189.752607 850553.217025 1100.000000 255 255 255 
762112.888147 850593.447545 1100.000000 255 255 255 
762044.531389 850635.670153 1100.000000 255 255 255 
762022.617196 850651.632691 1100.000000 255 255 255 
762020.587605 850659.821195 1100.000000 255 255 255 
762025.714716 850665.526413 1100.000000 255 255 255 
762051.220693 850674.498502 1100.000000 255 255 255 
762129.229858 850704.419207 1100.000000 255 255 255 
762191.230009 850744.500839 1100.000000 255 255 255 
762235.358096 850801.513526 1100.000000 255 255 255 
762373.314269 848834.045470 1300.000000 255 255 255 
762332.563257 848953.297754 1300.000000 255 255 255 
762315.160407 849079.316845 1300.000000 255 255 255 
762280.814855 849248.386225 1300.000000 255 255 255 
762240.192971 849344.406446 1300.000000 255 255 255 
762209.519573 849453.756827 1300.000000 255 255 255 
762209.409452 849563.342374 1300.000000 255 255 255 
762197.858021 849702.587854 1300.000000 255 255 255 
762178.031909 849819.343572 1300.000000 255 255 255 
762164.535681 849963.082449 1300.000000 255 255 255 
762134.336995 850065.518580 1300.000000 255 255 255 
762095.640200 850173.794395 1300.000000 255 255 255 
762064.684255 850269.370572 1300.000000 255 255 255 
762030.555857 850307.994797 1300.000000 255 255 255 
761977.570897 850315.349614 1300.000000 255 255 255 
761902.997549 850258.508836 1300.000000 255 255 255 
761837.799366 850218.331231 1300.000000 255 255 255 
761747.823818 850178.007714 1300.000000 255 255 255 
761678.038844 850111.246296 1300.000000 255 255 255 
761631.784960 850018.065285 1300.000000 255 255 255 
761612.329285 849911.757546 1300.000000 255 255 255 
762027.073153 848918.416383 1400.000000 255 255 255 
762147.062461 848968.863607 1400.000000 255 255 255 
762189.682123 849115.128184 1400.000000 255 255 255 
762155.600839 849254.350485 1400.000000 255 255 255 
762108.181285 849353.630906 1400.000000 255 255 255 
762087.419815 849482.948967 1400.000000 255 255 255 
762059.811461 849642.097746 1400.000000 255 255 255 
762052.099724 849827.906441 1400.000000 255 255 255 
762034.807670 849934.011049 1400.000000 255 255 255 
761984.219857 850020.018238 1400.000000 255 255 255 
761927.134968 850072.801759 1400.000000 255 255 255 
761843.932319 850015.921794 1400.000000 255 255 255 
761777.487745 849949.178548 1400.000000 255 255 255 
761754.618146 849856.126636 1400.000000 255 255 255 
761755.279868 849736.654761 1400.000000 255 255 255 
761722.443202 849633.590980 1400.000000 255 255 255 
761716.239645 849547.268394 1400.000000 255 255 255 
761703.244488 849480.820783 1400.000000 255 255 255 
761687.055555 849387.805093 1400.000000 255 255 255 
761644.031021 849314.553536 1400.000000 255 255 255 
761594.545290 849201.440594 1400.000000 255 255 255 
761648.510069 849108.812532 1400.000000 255 255 255 
761739.240911 849013.068889 1400.000000 255 255 255 
761846.381673 848970.517151 1400.000000 255 255 255 
761913.507846 848914.468688 1400.000000 255 255 255 
762020.373377 848921.698107 1400.000000 255 255 255 
761881.360275 849199.152578 1500.000000 255 255 255 
761928.704380 849186.696095 1500.000000 255 255 255 
761984.845689 849256.862992 1500.000000 255 255 255 
761981.107212 849376.158270 1500.000000 255 255 255 
761953.830284 849475.570995 1500.000000 255 255 255 
761910.144354 849521.792007 1500.000000 255 255 255 
761870.203593 849495.020444 1500.000000 255 255 255 
761843.864350 849425.179959 1500.000000 255 255 255 
761810.862053 849351.983721 1500.000000 255 255 255 
761804.474721 849298.847577 1500.000000 255 255 255 
761834.834725 849245.914827 1500.000000 255 255 255 
761868.480332 849202.956635 1500.000000 255 255 255 
761885.202081 849199.730421 1500.000000 255 255 255 
762173.505280 850787.319718 1120.000000 255 255 255 
762109.509075 850725.571274 1120.000000 255 255 255 
762027.459922 850713.341768 1120.000000 255 255 255 
761980.020949 850718.965485 1120.000000 255 255 255 
761926.534897 850746.421690 1120.000000 255 255 255 
761890.040364 850763.039198 1120.000000 255 255 255 
761839.234000 850765.280351 1120.000000 255 255 255 
761796.121134 850754.108244 1120.000000 255 255 255 
761785.595358 850743.957883 1120.000000 255 255 255 
761782.267496 850733.426939 1120.000000 255 255 255 
761789.535370 850720.431754 1120.000000 255 255 255 
761848.563481 850685.857632 1120.000000 255 255 255 
761922.553140 850624.874982 1120.000000 255 255 255 
762018.792067 850597.235400 1120.000000 255 255 255 
762102.578481 850563.429555 1120.000000 255 255 255 
762197.643656 850518.543107 1120.000000 255 255 255 
762264.740314 850479.388451 1120.000000 255 255 255 
762315.888166 850415.756008 1120.000000 255 255 255 
762355.282557 850334.397005 1120.000000 255 255 255 
762388.545627 850290.008264 1120.000000 255 255 255 
762448.973179 850232.314227 1120.000000 255 255 255 
762504.298192 850178.796861 1120.000000 255 255 255 
762544.324586 850136.127616 1120.000000 255 255 255 
762575.356779 850036.219309 1120.000000 255 255 255 
762604.588425 849955.644171 1120.000000 255 255 255 
762610.037013 849889.234027 1120.000000 255 255 255 
762601.954640 849820.225536 1120.000000 255 255 255 
762575.219824 849756.159448 1120.000000 255 255 255 
762566.071173 849726.672887 1120.000000 255 255 255 
762562.268168 849649.277746 1120.000000 255 255 255 
762543.404436 849539.839921 1120.000000 255 255 255 
762527.744683 849463.219683 1120.000000 255 255 255 
762517.024167 849411.857567 1120.000000 255 255 255 
762517.280981 849365.602515 1120.000000 255 255 255 
762527.668595 849324.449831 1120.000000 255 255 255 
762546.638644 849262.319031 1120.000000 255 255 255 
762558.761444 849213.606612 1120.000000 255 255 255 
762595.288647 849038.874784 1120.000000 255 255 255 
762622.102077 848936.417439 1120.000000 255 255 255 
762588.262366 848932.024418 1140.000000 255 255 255 
762530.421529 849133.551364 1140.000000 255 255 255 
762491.518230 849278.833615 1140.000000 255 255 255 
762476.827785 849332.577871 1140.000000 255 255 255 
762466.332845 849393.073562 1140.000000 255 255 255 
762484.364353 849499.983921 1140.000000 255 255 255 
762497.442418 849584.158942 1140.000000 255 255 255 
762497.906020 849653.125381 1140.000000 255 255 255 
762490.783666 849697.029212 1140.000000 255 255 255 
762480.356803 849726.196786 1140.000000 255 255 255 
762479.425003 849741.540238 1140.000000 255 255 255 
762483.165636 849753.966063 1140.000000 255 255 255 
762495.313485 849776.951331 1140.000000 255 255 255 
762506.609504 849800.878010 1140.000000 255 255 255 
762526.298109 849837.992230 1140.000000 255 255 255 
762538.996139 849876.224001 1140.000000 255 255 255 
762545.325093 849917.994689 1140.000000 255 255 255 
762541.300632 849956.659129 1140.000000 255 255 255 
762510.017744 850063.609726 1140.000000 255 255 255 
762498.816264 850098.870102 1140.000000 255 255 255 
762474.018527 850143.306053 1140.000000 255 255 255 
762411.977172 850186.694038 1140.000000 255 255 255 
762379.048880 850208.903069 1140.000000 255 255 255 
762345.841840 850243.200089 1140.000000 255 255 255 
762319.100449 850294.668580 1140.000000 255 255 255 
762286.422459 850386.157070 1140.000000 255 255 255 
762268.227219 850423.165484 1140.000000 255 255 255 
762241.149094 850459.073277 1140.000000 255 255 255 
762221.355382 850479.042384 1140.000000 255 255 255 
762195.225432 850496.663537 1140.000000 255 255 255 
762152.582613 850515.139142 1140.000000 255 255 255 
762050.976623 850556.415105 1140.000000 255 255 255 
761881.518609 850582.387001 1140.000000 255 255 255 
761804.240741 850625.690517 1140.000000 255 255 255 
761721.172459 850644.572969 1140.000000 255 255 255 
761714.962564 850581.253227 1160.000000 255 255 255 
761757.326964 850574.760060 1160.000000 255 255 255 
761836.232632 850543.239476 1160.000000 255 255 255 
761883.254854 850536.456854 1160.000000 255 255 255 
761920.073093 850537.817453 1160.000000 255 255 255 
761967.432313 850546.595345 1160.000000 255 255 255 
762036.928854 850532.578781 1160.000000 255 255 255 
762126.423154 850499.960949 1160.000000 255 255 255 
762175.220937 850478.365715 1160.000000 255 255 255 
762203.269623 850458.232180 1160.000000 255 255 255 
762238.552785 850415.938124 1160.000000 255 255 255 
762261.388255 850358.895526 1160.000000 255 255 255 
762273.496800 850312.707278 1160.000000 255 255 255 
762283.065704 850266.504879 1160.000000 255 255 255 
762296.072188 850211.070397 1160.000000 255 255 255 
762312.500825 850187.297924 1160.000000 255 255 255 
762328.443736 850174.771280 1160.000000 255 255 255 
762387.929567 850134.207419 1160.000000 255 255 255 
762422.825136 850100.760711 1160.000000 255 255 255 
762437.108286 850082.232616 1160.000000 255 255 255 
762446.752911 850060.524943 1160.000000 255 255 255 
762464.857608 850001.754447 1160.000000 255 255 255 
762474.417336 849957.233690 1160.000000 255 255 255 
762469.618280 849906.746005 1160.000000 255 255 255 
762452.981384 849853.669470 1160.000000 255 255 255 
762435.446503 849809.839117 1160.000000 255 255 255 
762418.411659 849790.295955 1160.000000 255 255 255 
762409.578815 849780.154678 1160.000000 255 255 255 
762405.208503 849766.779227 1160.000000 255 255 255 
762403.822160 849749.635752 1160.000000 255 255 255 
762404.128353 849732.606796 1160.000000 255 255 255 
762416.786726 849701.769572 1160.000000 255 255 255 
762440.812650 849643.872491 1160.000000 255 255 255 
762449.609803 849584.208735 1160.000000 255 255 255 
762442.480957 849495.861656 1160.000000 255 255 255 
762436.411819 849445.366467 1160.000000 255 255 255 
762430.660485 849375.739641 1160.000000 255 255 255 
762430.802849 849350.089112 1160.000000 255 255 255 
762435.588499 849326.777166 1160.000000 255 255 255 
762445.364445 849281.415914 1160.000000 255 255 255 
762461.780662 849221.793970 1160.000000 255 255 255 
762474.733600 849176.029726 1160.000000 255 255 255 
762507.886727 849075.289962 1160.000000 255 255 255 
762564.205542 848919.170236 1160.000000 255 255 255 
761713.684340 850506.396954 1180.000000 255 255 255 
761756.016170 850505.790596 1180.000000 255 255 255 
761835.656565 850494.458094 1180.000000 255 255 255 
761908.454713 850495.702822 1180.000000 255 255 255 
761952.381727 850512.766571 1180.000000 255 255 255 
762004.016280 850513.894052 1180.000000 255 255 255 
762070.986677 850497.445604 1180.000000 255 255 255 
762143.139134 850462.523871 1180.000000 255 255 255 
762189.030079 850430.820403 1180.000000 255 255 255 
762222.344282 850377.180903 1180.000000 255 255 255 
762242.932288 850328.516731 1180.000000 255 255 255 
762248.357130 850266.312155 1180.000000 255 255 255 
762256.330953 850202.439623 1180.000000 255 255 255 
762275.235252 850152.083882 1180.000000 255 255 255 
762308.428260 850120.309705 1180.000000 255 255 255 
762331.429974 850094.366019 1180.000000 255 255 255 
762360.479020 850046.589533 1180.000000 255 255 255 
762376.839115 849997.060501 1180.000000 255 255 255 
762387.329372 849937.406620 1180.000000 255 255 255 
762384.209325 849889.451329 1180.000000 255 255 255 
762380.186665 849851.583198 1180.000000 255 255 255 
762368.564798 849810.098521 1180.000000 255 255 255 
762356.913722 849773.870025 1180.000000 255 255 255 
762351.617660 849736.625511 1180.000000 255 255 255 
762363.651577 849703.892525 1180.000000 255 255 255 
762377.404304 849666.543438 1180.000000 255 255 255 
762386.807522 849650.195719 1180.000000 255 255 255 
762400.092640 849620.833702 1180.000000 255 255 255 
762404.060903 849592.260968 1180.000000 255 255 255 
762405.610848 849541.808185 1180.000000 255 255 255 
762405.035031 849493.025598 1180.000000 255 255 255 
762401.625591 849459.050302 1180.000000 255 255 255 
762397.191184 849419.076988 1180.000000 255 255 255 
762397.415214 849378.708983 1180.000000 255 255 255 
762393.481062 849324.861434 1180.000000 255 255 255 
762394.113765 849287.123830 1180.000000 255 255 255 
762407.695145 849242.519558 1180.000000 255 255 255 
762425.441140 849210.238408 1180.000000 255 255 255 
762437.096183 849169.513133 1180.000000 255 255 255 
762471.075378 849072.457452 1180.000000 255 255 255 
762510.493808 848986.890827 1180.000000 255 255 255 
762533.748047 848915.531936 1180.000000 255 255 255 
761791.330546 850396.655831 1220.000000 255 255 255 
761841.248770 850401.978609 1220.000000 255 255 255 
761903.762581 850425.873413 1220.000000 255 255 255 
761968.774000 850457.351210 1220.000000 255 255 255 
762029.729957 850456.848404 1220.000000 255 255 255 
762121.385671 850416.147772 1220.000000 255 255 255 
762172.528655 850353.356112 1220.000000 255 255 255 
762190.623643 850296.267977 1220.000000 255 255 255 
762198.625403 850227.349596 1220.000000 255 255 255 
762209.957346 850168.541732 1220.000000 255 255 255 
762227.219836 850108.925697 1220.000000 255 255 255 
761793.308008 850345.365452 1240.000000 255 255 255 
761871.952924 850360.939573 1240.000000 255 255 255 
761931.838529 850400.798963 1240.000000 255 255 255 
761972.328136 850427.094735 1240.000000 255 255 255 
762029.930612 850420.686271 1240.000000 255 255 255 
762066.388120 850410.796499 1240.000000 255 255 255 
762108.869502 850383.279035 1240.000000 255 255 255 
762137.006296 850347.271877 1240.000000 255 255 255 
762162.715516 850291.067007 1240.000000 255 255 255 
762169.772657 850239.804596 1240.000000 255 255 255 
762175.099354 850195.260609 1240.000000 255 255 255 
762183.840261 850145.689457 1240.000000 255 255 255 
762193.357712 850108.737748 1240.000000 255 255 255 
761798.666986 850294.934768 1260.000000 255 255 255 
761880.614247 850325.665325 1260.000000 255 255 255 
761934.578737 850364.650896 1260.000000 255 255 255 
761988.613130 850391.021819 1260.000000 255 255 255 
762048.769298 850382.104505 1260.000000 255 255 255 
762098.083742 850343.691825 1260.000000 255 255 255 
762126.239210 850304.320695 1260.000000 255 255 255 
762139.268837 850244.681356 1260.000000 255 255 255 
762154.103590 850164.867688 1260.000000 255 255 255 
762168.765672 850116.170378 1260.000000 255 255 255 
761810.756394 850252.110404 1280.000000 255 255 255 
761886.768572 850284.490094 1280.000000 255 255 255 
761944.081994 850330.222324 1280.000000 255 255 255 
761982.897236 850353.144812 1280.000000 255 255 255 
762020.168659 850349.146543 1280.000000 255 255 255 
762057.468095 850340.102412 1280.000000 255 255 255 
762092.395915 850300.768846 1280.000000 255 255 255 
762110.481463 850245.362609 1280.000000 255 255 255 
762118.385089 850194.104855 1280.000000 255 255 255 
762130.563474 850135.301658 1280.000000 255 255 255 
762143.425091 850105.937609 1280.000000 255 255 255 
762282.762227 850778.360283 1080.000000 255 255 255 
762233.082576 850730.147193 1080.000000 255 255 255 
762179.137418 850687.797467 1080.000000 255 255 255 
762157.248733 850665.809852 1080.000000 255 255 255 
762151.888213 850659.262316 1080.000000 255 255 255 
762148.559245 850648.941549 1080.000000 255 255 255 
762149.082914 850630.862895 1080.000000 255 255 255 
762160.170867 850615.996656 1080.000000 255 255 255 
762210.141178 850573.803450 1080.000000 255 255 255 
762307.876489 850524.516755 1080.000000 255 255 255 
762348.977686 850497.832899 1080.000000 255 255 255 
762378.751689 850471.927116 1080.000000 255 255 255 
762437.855852 850413.029592 1080.000000 255 255 255 
762497.324146 850348.327038 1080.000000 255 255 255 
762533.954881 850307.321133 1080.000000 255 255 255 
762569.664324 850279.766266 1080.000000 255 255 255 
762625.751866 850241.391536 1080.000000 255 255 255 
762652.921063 850227.245388 1080.000000 255 255 255 
762684.346434 850208.917848 1080.000000 255 255 255 
762700.524500 850192.187545 1080.000000 255 255 255 
762698.078376 850175.353662 1080.000000 255 255 255 
762692.260058 850155.977978 1080.000000 255 255 255 
762691.577183 850126.538666 1080.000000 255 255 255 
762701.866794 850103.047459 1080.000000 255 255 255 
762727.436520 850072.072068 1080.000000 255 255 255 
762737.284168 850051.942441 1080.000000 255 255 255 
762740.838764 850021.685604 1080.000000 255 255 255 
762738.282672 849948.502851 1080.000000 255 255 255 
762731.313713 849907.674696 1080.000000 255 255 255 
762726.037852 849866.855925 1080.000000 255 255 255 
762721.940641 849842.443570 1080.000000 255 255 255 
762715.907013 849785.641139 1080.000000 255 255 255 
762717.368530 849751.167388 1080.000000 255 255 255 
762719.199563 849726.367420 1080.000000 255 255 255 
762688.850226 849589.111958 1080.000000 255 255 255 
762687.577690 849513.412637 1080.000000 255 255 255 
762690.121252 849360.359855 1080.000000 255 255 255 
762683.815892 849276.221920 1080.000000 255 255 255 
762690.451949 849148.422080 1080.000000 255 255 255 
762703.715744 849046.730756 1080.000000 255 255 255 
762712.405694 849006.409373 1080.000000 255 255 255 
762324.317541 850765.135173 1060.000000 255 255 255 
762284.782395 850719.501386 1060.000000 255 255 255 
762252.814668 850683.160681 1060.000000 255 255 255 
762235.219446 850650.263828 1060.000000 255 255 255 
762234.555077 850617.461002 1060.000000 255 255 255 
762260.980132 850584.808619 1060.000000 255 255 255 
762336.162064 850547.940638 1060.000000 255 255 255 
762405.378883 850498.146293 1060.000000 255 255 255 
762464.936356 850444.652810 1060.000000 255 255 255 
762504.939181 850406.188766 1060.000000 255 255 255 
762554.819453 850361.261788 1060.000000 255 255 255 
762588.817077 850337.061502 1060.000000 255 255 255 
762635.527044 850310.408872 1060.000000 255 255 255 
762656.718903 850305.480650 1060.000000 255 255 255 
762701.572134 850308.253142 1060.000000 255 255 255 
762737.117976 850310.132890 1060.000000 255 255 255 
762789.674421 850297.810099 1060.000000 255 255 255 
762844.915653 850259.430884 1060.000000 255 255 255 
762878.132517 850223.452140 1060.000000 255 255 255 
762902.972806 850171.447467 1060.000000 255 255 255 
762921.096848 850109.313155 1060.000000 255 255 255 
762936.799268 850063.985629 1060.000000 255 255 255 
762933.670455 850017.712236 1060.000000 255 255 255 
762914.405515 849980.600218 1060.000000 255 255 255 
762889.107001 849962.798058 1060.000000 255 255 255 
762826.742285 849911.989973 1060.000000 255 255 255 
762810.026242 849873.210092 1060.000000 255 255 255 
762806.097444 849818.521909 1060.000000 255 255 255 
762792.168857 849735.183311 1060.000000 255 255 255 
762770.518240 849670.304177 1060.000000 255 255 255 
762777.627379 849609.789975 1060.000000 255 255 255 
762781.284797 849561.030862 1060.000000 255 255 255 
762785.145556 849475.688172 1060.000000 255 255 255 
762782.236065 849389.887185 1060.000000 255 255 255 
762772.701494 849353.669965 1060.000000 255 255 255 
762765.201541 849332.182044 1060.000000 255 255 255 
762758.594881 849302.288784 1060.000000 255 255 255 
762751.120608 849276.175325 1060.000000 255 255 255 
762748.707061 849253.454095 1060.000000 255 255 255 
762747.289600 849203.825392 1060.000000 255 255 255 
762748.381470 849159.677288 1060.000000 255 255 255 
762755.183962 849078.134885 1060.000000 255 255 255 
762770.763361 849016.825930 1060.000000 255 255 255 
762369.226340 850757.815742 1040.000000 255 255 255 
762326.407854 850693.661593 1040.000000 255 255 255 
762310.098851 850657.828336 1040.000000 255 255 255 
762310.593070 850631.808628 1040.000000 255 255 255 
762320.312082 850609.947858 1040.000000 255 255 255 
762337.973678 850592.805396 1040.000000 255 255 255 
762397.584203 850548.773608 1040.000000 255 255 255 
762440.915824 850520.630469 1040.000000 255 255 255 
762476.854235 850489.923219 1040.000000 255 255 255 
762533.437799 850438.410650 1040.000000 255 255 255 
762581.656570 850406.825523 1040.000000 255 255 255 
762632.571167 850385.242390 1040.000000 255 255 255 
762663.940311 850377.006747 1040.000000 255 255 255 
762704.546686 850382.278671 1040.000000 255 255 255 
762749.427928 850380.005320 1040.000000 255 255 255 
762783.374211 850365.055995 1040.000000 255 255 255 
762834.335809 850335.063159 1040.000000 255 255 255 
762893.884722 850283.251793 1040.000000 255 255 255 
762937.372634 850227.145925 1040.000000 255 255 255 
762956.268379 850178.472237 1040.000000 255 255 255 
762978.573786 850125.612393 1040.000000 255 255 255 
763004.865264 850079.082307 1040.000000 255 255 255 
763033.045155 850035.506253 1040.000000 255 255 255 
763046.085336 849974.184461 1040.000000 255 255 255 
763038.784650 849916.954452 1040.000000 255 255 255 
763023.897632 849853.795004 1040.000000 255 255 255 
763008.865458 849816.706378 1040.000000 255 255 255 
762982.724974 849798.058416 1040.000000 255 255 255 
762937.211778 849761.641207 1040.000000 255 255 255 
762902.072431 849724.650974 1040.000000 255 255 255 
762894.504841 849677.301305 1040.000000 255 255 255 
762886.551356 849623.221252 1040.000000 255 255 255 
762885.045309 849589.571870 1040.000000 255 255 255 
762883.307713 849521.439099 1040.000000 255 255 255 
762884.853476 849471.827097 1040.000000 255 255 255 
762884.689722 849425.149138 1040.000000 255 255 255 
762881.574648 849376.352152 1040.000000 255 255 255 
762869.895662 849345.169134 1040.000000 255 255 255 
762850.583493 849316.466764 1040.000000 255 255 255 
762832.113193 849288.610101 1040.000000 255 255 255 
762817.061874 849254.885222 1040.000000 255 255 255 
762809.760538 849197.654511 1040.000000 255 255 255 
762809.301850 849127.846266 1040.000000 255 255 255 
762813.833796 849074.045299 1040.000000 255 255 255 
762825.143013 849019.440889 1040.000000 255 255 255 
762412.460780 850747.123030 1020.000000 255 255 255 
762385.661219 850694.831888 1020.000000 255 255 255 
762378.290043 850650.217729 1020.000000 255 255 255 
762398.031655 850601.549185 1020.000000 255 255 255 
762493.256189 850528.069965 1020.000000 255 255 255 
762559.581481 850475.455245 1020.000000 255 255 255 
762620.695009 850445.997261 1020.000000 255 255 255 
762663.066249 850439.026362 1020.000000 255 255 255 
762726.552809 850440.220537 1020.000000 255 255 255 
762774.876362 850427.874261 1020.000000 255 255 255 
762824.140113 850398.713039 1020.000000 255 255 255 
762885.016619 850355.529523 1020.000000 255 255 255 
762936.881060 850315.449637 1020.000000 255 255 255 
762965.888629 850275.242485 1020.000000 255 255 255 
763000.092636 850214.038861 1020.000000 255 255 255 
763017.234468 850176.288605 1020.000000 255 255 255 
763042.000018 850137.739750 1020.000000 255 255 255 
763070.156516 850098.368729 1020.000000 255 255 255 
763112.751395 850050.667899 1020.000000 255 255 255 
763128.190861 850014.590066 1020.000000 255 255 255 
763126.895834 849943.096155 1020.000000 255 255 255 
763123.248388 849837.948153 1020.000000 255 255 255 
763116.752143 849788.291635 1020.000000 255 255 255 
763112.692560 849757.151163 1020.000000 255 255 255 
763087.492250 849721.687869 1020.000000 255 255 255 
763044.481264 849692.012622 1020.000000 255 255 255 
763023.415416 849674.233873 1020.000000 255 255 255 
762991.461180 849635.368922 1020.000000 255 255 255 
762975.572937 849599.957456 1020.000000 255 255 255 
762969.913643 849551.987482 1020.000000 255 255 255 
762970.161586 849507.414431 1020.000000 255 255 255 
762975.531032 849455.300573 1020.000000 255 255 255 
762978.328018 849409.059551 1020.000000 255 255 255 
762980.306489 849357.767750 1020.000000 255 255 255 
762972.027869 849324.080496 1020.000000 255 255 255 
762955.264804 849293.710167 1020.000000 255 255 255 
762941.036754 849264.194959 1020.000000 255 255 255 
762929.409186 849223.760784 1020.000000 255 255 255 
762938.136409 849024.484275 1020.000000 255 255 255 
762947.022907 848948.840402 1020.000000 255 255 255 
